x,y,z,r,curvature,torsion
64.125,91.9688,0.281646,0,0,0.00E+00
64.1018,91.9837,0.568357,2.96132,0.00678413,-3.25E-13
64.0785,91.9991,0.854829,2.96357,0.0135961,4.24E-14
64.0547,92.0155,1.14082,2.95405,0.0204634,2.71E-14
64.0304,92.0332,1.4261,2.93884,0.0274126,-1.12E-14
64.0053,92.0529,1.71042,2.91197,0.034469,-5.37E-17
63.9793,92.0749,1.99355,2.89193,0.0416558,4.34E-15
63.9521,92.0998,2.27525,2.8687,0.0489938,-7.35E-15
63.9236,92.1279,2.55528,2.90375,0.0564999,-5.80E-15
63.8935,92.1599,2.83339,2.88676,0.0641863,-4.75E-15
63.8617,92.196,3.10936,2.9071,0.0720592,0.119773
63.828,92.2367,3.38303,2.88038,0.061834,0.167395
63.7926,92.2813,3.65463,2.87891,0.0514646,0.247335
63.7554,92.329,3.92449,2.8829,0.0411403,0.394312
63.7167,92.3791,4.19294,2.86618,0.0312039,0.695432
63.6765,92.4306,4.46028,2.8679,0.0224829,1.35419
63.635,92.4829,4.72685,2.85136,0.0172348,2.3218
63.5923,92.5351,4.99297,2.86031,0.0188081,1.95792
63.5485,92.5864,5.25896,2.86546,0.0260283,1.02331
63.5037,92.636,5.52513,2.84584,0.0355868,5.46E-01
63.458,92.6831,5.79183,2.88181,0.0459841,-7.55E-02
63.4116,92.7272,6.05927,2.82196,0.0363932,-1.20E-01
63.3645,92.7687,6.32734,2.83805,0.0269163,-2.17E-01
63.3169,92.8083,6.59583,2.86817,0.0176136,-5.06E-01
63.2688,92.8466,6.86452,2.84345,0.00886104,-2.00E+00
63.2202,92.8844,7.13321,2.90237,0.00526629,-5.66E+00
63.1714,92.9223,7.40169,2.89542,0.012577,-9.97E-01
63.1224,92.9611,7.66975,2.89852,0.021728,-3.36E-01
63.0732,93.0014,7.93717,2.86513,0.0312026,-1.65E-01
63.0239,93.0439,8.20374,2.8672,0.0408447,-0.0972195
62.9748,93.0892,8.46926,2.9009,0.0506239,0.370911
62.9256,93.1379,8.73355,2.9339,0.0444007,0.48895
62.8763,93.1897,8.99656,2.87989,0.0390426,0.641464
62.8263,93.2439,9.25825,2.89372,0.0350107,0.80972
62.7753,93.3002,9.51861,2.91257,0.0328639,0.933602
62.7229,93.3578,9.77761,2.90515,0.0330447,0.939048
62.6687,93.4164,10.0352,2.87922,0.0355934,0.823907
62.6125,93.4754,10.2914,2.92758,0.0401362,0.660186
62.5537,93.5341,10.5462,3.0111,0.0461588,0.508935
62.492,93.5922,10.7996,3.01278,0.0532248,0.390437
62.4271,93.6491,11.0515,2.87713,0.0610258,0.302934
62.3586,93.7044,11.3019,2.97401,0.0535527,0.0147371
62.287,93.7581,11.5511,2.99454,0.0459509,0.0202445
62.2125,93.8105,11.7993,2.97871,0.0382916,0.0293384
62.1358,93.8618,12.0469,3.00305,0.0306664,0.0458213
62.057,93.9123,12.2941,2.86761,0.0232253,0.079681
61.9769,93.9621,12.5411,2.88372,0.0163106,0.160499
61.8956,94.0115,12.7883,2.98394,0.0109918,0.349741
61.8137,94.0608,13.0359,2.97692,0.0101115,0.407494
61.7317,94.11,13.2842,2.90566,0.0143846,0.197808
61.6498,94.1595,13.5334,2.87217,0.0207301,9.32E-02
61.5685,94.2094,13.7838,2.85135,0.0143945,-2.11E+00
61.487,94.2588,14.0351,2.84567,0.0236935,-7.64E-01
61.4045,94.307,14.2871,2.85419,0.0384045,-2.87E-01
61.3202,94.3531,14.5395,2.82434,0.0542003,-1.42E-01
61.2333,94.3962,14.792,2.84236,0.070307,-8.39E-02
61.143,94.4354,15.0443,2.78121,0.0865019,-5.50E-02
61.0485,94.4699,15.2962,2.77004,0.102657,-3.87E-02
60.9489,94.4989,15.5474,2.76242,0.118638,-2.86E-02
60.8434,94.5214,15.7975,2.78958,0.134271,-0.0219334
60.7312,94.5366,16.0464,2.76871,0.14933,-0.0172768
60.6119,94.5439,16.2937,2.78429,0.127508,0.265975
60.4866,94.5438,16.5398,2.77706,0.106973,0.367147
60.3568,94.5368,16.7848,2.76874,0.0882394,0.527016
60.224,94.5238,17.029,2.75196,0.0721692,0.775348
60.0898,94.5054,17.2727,2.77448,0.0603578,1.10097
59.9557,94.4823,17.5161,2.81438,0.0552302,1.31935
59.8231,94.4552,17.7595,2.78315,0.0585292,1.19143
59.6936,94.4248,18.0032,2.81466,0.0693082,0.870835
59.5687,94.3918,18.2473,2.79501,0.0851998,0.596515
59.45,94.3569,18.4923,2.79123,0.104419,0.414652
59.3385,94.3207,18.7382,2.77354,0.099677,-0.160383
59.2342,94.283,18.985,2.71214,0.0947699,-0.184054
59.1366,94.2437,19.2327,2.7005,0.0897937,-0.211387
59.0451,94.2024,19.481,2.67589,0.084853,-0.242712
58.9592,94.159,19.7299,2.62564,0.0800613,-0.278118
58.8785,94.1133,19.9793,2.60335,0.0755414,-0.317208
58.8025,94.0649,20.229,2.64373,0.0714259,-0.358773
58.7306,94.0138,20.479,2.50329,0.067854,-0.400435
58.6623,93.9596,20.7291,2.47629,0.0649653,-0.438465
58.5972,93.902,20.9791,2.4943,0.0628882,-0.468104
58.5351,93.841,21.2291,2.73569,0.0825515,0.375638
58.4771,93.776,21.4784,2.68468,0.104623,0.238781
58.4249,93.7066,21.7265,2.72706,0.128422,0.16376
58.3799,93.6325,21.9729,2.7505,0.153706,0.119197
58.3436,93.5533,22.217,2.67074,0.180307,0.0908
58.3177,93.4684,22.4584,2.64799,0.207959,0.0715934
58.3035,93.3775,22.6965,2.66754,0.236182,0.0579139
58.3026,93.2802,22.9308,2.67363,0.264203,0.0477084
58.3167,93.176,23.1607,2.68532,0.290905,0.0397648
58.347,93.0646,23.3857,2.64545,0.314857,0.0333419
58.3949,92.9457,23.6052,2.65578,0.292582,-0.0759338
58.4594,92.8195,23.8191,2.65765,0.26984,-0.0839789
58.5393,92.6863,24.0269,2.66118,0.247549,-0.0929812
58.6335,92.5467,24.2284,2.70273,0.226368,-0.103212
58.7406,92.4009,24.4232,2.64631,0.206734,-0.114948
58.8595,92.2493,24.6111,2.67671,0.188929,-0.128432
58.9889,92.0923,24.7918,2.71115,0.173128,-0.143804
59.1275,91.9304,24.965,2.69691,0.159457,-0.160986
59.2742,91.7638,25.1303,2.65941,0.148028,-0.179523
59.4277,91.593,25.2875,2.62872,0.138965,-0.198401
59.587,91.4186,25.4364,2.66179,0.133682,0.491191
59.7522,91.2419,25.5769,2.69017,0.132105,0.499915
59.9236,91.0646,25.7092,2.71146,0.134303,0.48511
60.1015,90.8883,25.8332,2.70334,0.14014,0.450771
60.2861,90.7147,25.9492,2.66863,0.149308,0.404915
60.478,90.5454,26.057,2.71973,0.1614,0.355539
60.6772,90.382,26.157,2.70104,0.175964,0.308161
60.8842,90.2261,26.249,2.69642,0.192515,0.265535
61.0992,90.0794,26.3332,2.73043,0.210518,0.22845
61.3226,89.9435,26.4097,2.67821,0.229343,0.196631
61.5542,89.8191,26.4785,2.74206,0.184241,-0.547297
61.7926,89.7039,26.5398,2.72558,0.142798,-0.908342
62.0357,89.5946,26.5937,2.65845,0.110691,-1.50542
62.2815,89.4878,26.6403,2.67637,0.0976556,-1.93422
62.5281,89.3803,26.6797,2.70004,0.110617,-1.51667
62.7736,89.2688,26.7122,2.69888,0.142917,-0.918038
63.0158,89.1499,26.7377,2.73695,0.18484,-0.553948
63.253,89.0206,26.7565,2.6582,0.230675,-0.355404
63.483,88.8773,26.7687,2.65201,0.276638,-0.241409
63.704,88.7169,26.7743,2.62191,0.319062,-0.170704
63.9146,88.5372,26.7736,2.53663,0.25396,0.166714
64.1161,88.341,26.767,2.55678,0.192973,0.261799
64.3107,88.1321,26.7547,2.58288,0.137483,0.473914
64.5004,87.9143,26.7373,2.64269,0.0888661,1.06771
64.6872,87.6916,26.715,2.63546,0.0545177,2.75307
64.873,87.4678,26.6883,2.61811,0.0591328,2.34766
65.0601,87.2468,26.6575,2.60768,0.0976675,0.892271
65.2504,87.0323,26.6231,2.72946,0.147847,0.415818
65.4458,86.8284,26.5854,2.68014,0.204465,0.237445
65.6486,86.6389,26.5448,2.71234,0.266383,0.154396
65.8601,86.4665,26.5017,2.72594,0.231909,0.00246727
66.0794,86.3095,26.4565,2.6927,0.193275,0.00371552
66.3052,86.1653,26.4096,2.66714,0.15227,0.00612113
66.536,86.0311,26.3613,2.65022,0.110153,0.0118019
66.7704,85.904,26.3122,2.64546,0.0676548,0.0313755
67.0069,85.7814,26.2625,2.66613,0.025119,0.228012
67.2442,85.6605,26.2127,2.65933,0.0178072,0.455207
67.4807,85.5386,26.1631,2.67393,0.0604919,0.0396462
67.7151,85.4128,26.1142,2.67542,0.103395,0.0136331
67.9459,85.2804,26.0663,2.61315,0.146193,0.00681603
68.1721,85.1393,26.0198,2.62498,0.126903,-0.170695
68.3943,84.9901,25.9749,2.65416,0.107768,-0.231572
68.6132,84.8337,25.9318,2.6707,0.0892947,-0.327586
68.83,84.6713,25.8904,2.67568,0.0720865,-0.485808
69.0455,84.504,25.8511,2.63709,0.0570856,-0.746502
69.2606,84.3329,25.8139,2.65678,0.0460021,-1.10596
69.4764,84.1591,25.779,2.54312,0.0414243,-1.31111
69.6936,83.9837,25.7465,2.51496,0.0447598,-1.07894
69.9132,83.8079,25.7165,2.47307,0.0540769,-0.70965
70.1363,83.6328,25.6892,2.48868,0.0665106,-0.449753
70.3633,83.4591,25.6648,2.48053,0.0597575,0.389193
70.5939,83.2871,25.6435,2.47503,0.0546471,0.452585
70.8271,83.1165,25.6256,2.46452,0.051434,0.50201
71.0623,82.9472,25.6113,2.52598,0.0503382,0.520369
71.2986,82.779,25.6009,2.53744,0.0514436,0.499867
71.5353,82.6118,25.5948,2.53747,0.0546495,0.449001
71.7715,82.4454,25.5931,2.57093,0.0597236,0.385021
72.0064,82.2796,25.5962,2.60988,0.0664035,0.322207
72.2393,82.1143,25.6043,2.57128,0.0744725,0.267639
72.4693,81.9494,25.6178,2.60374,0.0837865,0.223032
72.696,81.7847,25.6368,2.66263,0.0831191,-0.231653
72.9194,81.6205,25.6614,2.60072,0.08268,-0.245261
73.1401,81.4568,25.6918,2.56614,0.0825215,-0.255892
73.3586,81.294,25.728,2.52727,0.082684,-0.262788
73.5754,81.1323,25.77,2.5143,0.0831921,-0.265437
73.7908,80.9718,25.818,2.52992,0.0840518,-0.263664
74.0053,80.8129,25.8719,2.54948,0.0852493,-0.257663
74.2195,80.6557,25.9319,2.56999,0.0867519,-0.247949
74.4338,80.5005,25.9981,2.53463,0.0885102,-0.235263
74.6486,80.3475,26.0704,2.62873,0.0904622,-0.220444
74.8642,80.1967,26.1492,2.53771,0.0937112,0.47392
75.0799,80.0481,26.2346,2.53459,0.0989771,0.416597
75.2948,79.9011,26.3274,2.667,0.105895,0.358061
75.508,79.7555,26.428,2.58465,0.114108,0.304051
75.7186,79.611,26.537,2.57698,0.12329,0.257015
75.9257,79.4671,26.6547,2.57155,0.133146,0.217303
76.1284,79.3236,26.7819,2.61529,0.143398,0.18425
76.3259,79.18,26.9189,2.56357,0.153774,0.156842
76.5171,79.0362,27.0662,2.73419,0.163995,0.134057
76.7012,78.8916,27.2245,2.75649,0.173768,-0.319538
76.8776,78.7464,27.3938,2.67562,0.154912,-0.389634
77.0462,78.6021,27.5731,2.68325,0.142286,-0.459152
77.2073,78.4607,27.7607,2.70123,0.136946,-0.506803
77.3613,78.3242,27.9551,2.63669,0.139823,-0.512258
77.5084,78.1946,28.1549,2.63341,0.151378,-0.475264
77.6489,78.0738,28.3586,2.68016,0.171639,-0.415358
77.783,77.9638,28.5645,2.67551,0.200624,-0.353115
77.911,77.8666,28.7713,2.68423,0.238736,-0.299366
78.0332,77.7841,28.9774,2.7246,0.286908,-0.256796
78.1499,77.7184,29.1812,2.70035,0.346479,0.216235
78.2613,77.6705,29.3817,2.73906,0.315714,0.325609
78.3672,77.6383,29.5798,2.74107,0.275222,0.505346
78.4675,77.6186,29.7765,2.74947,0.229729,0.811603
78.5621,77.6084,29.9732,2.7266,0.186634,1.31391
78.6507,77.6046,30.171,2.668,0.157382,1.89569
78.7331,77.6041,30.3713,2.72359,0.154706,1.93928
78.8093,77.6039,30.5752,2.72103,0.17938,1.37476
78.879,77.6008,30.7839,2.71835,0.218971,0.846031
78.942,77.5919,30.9988,2.72411,0.261614,0.520768
78.9982,77.574,31.2209,2.66775,0.299893,0.116418
79.0477,77.5448,31.4512,2.67803,0.242481,0.146671
79.0914,77.5048,31.6886,2.53334,0.193004,0.195154
79.1307,77.4554,31.9317,2.53202,0.150361,0.278765
79.1668,77.3979,32.1791,2.62305,0.113682,0.436064
79.2011,77.3337,32.4294,2.68191,0.0829478,0.756595
79.2348,77.2639,32.6812,2.66221,0.0604708,1.35959
79.2691,77.19,32.9331,2.63595,0.0530744,1.74342
79.3055,77.1132,33.1836,2.62534,0.0651826,1.18109
79.3451,77.0348,33.4313,2.55424,0.0902633,0.650922
79.3892,76.9563,33.6749,2.53554,0.122656,0.486146
79.4387,76.8788,33.9132,2.47733,0.108805,0.681623
79.4932,76.8034,34.1471,2.54441,0.0984313,0.907506
79.5515,76.7313,34.3774,2.59833,0.0943179,1.06409
79.6127,76.6635,34.6053,2.66438,0.0985586,1.03633
79.6759,76.601,34.8317,2.81836,0.111039,0.856768
79.7401,76.545,35.0578,2.7809,0.129743,0.64859
79.8043,76.4964,35.2846,2.8353,0.152227,0.478271
79.8676,76.4565,35.5131,2.83551,0.176376,0.353988
79.9289,76.4262,35.7444,2.8064,0.200426,0.265532
79.9874,76.4066,35.9795,2.86721,0.222841,0.0280087
80.0424,76.3981,36.2193,2.87408,0.165659,0.0466625
80.0946,76.3984,36.4633,2.91651,0.112782,0.0924419
80.145,76.4044,36.7113,2.99467,0.0673142,0.239451
80.1948,76.4131,36.9626,2.96737,0.0436504,0.530135
80.2449,76.4214,37.2168,2.95979,0.0638625,0.232822
80.2963,76.4264,37.4734,2.93853,0.10252,0.0855934
80.3502,76.4251,37.7318,2.8766,0.144149,0.0411572
80.4076,76.4142,37.9915,2.86778,0.18546,0.023557
80.4694,76.391,38.2521,2.86191,0.224883,0.0149949
80.5369,76.3523,38.5131,2.95732,0.26079,-0.171443
80.6104,76.2956,38.7737,2.94742,0.240158,-0.18442
80.689,76.2211,39.0323,2.85532,0.226416,-0.194199
80.7708,76.1294,39.287,2.89287,0.219459,-0.198732
80.8543,76.021,39.5359,2.94134,0.21918,-0.196812
80.9379,75.8967,39.7772,2.91666,0.225435,-0.188721
81.0198,75.757,40.0089,2.88303,0.238045,-0.176084
81.0985,75.6027,40.2292,2.85626,0.256804,-0.161059
81.1722,75.4342,40.4363,2.87897,0.281476,-0.145521
81.2394,75.2524,40.6282,2.80681,0.311716,-0.130663
81.2985,75.0577,40.803,2.81965,0.346895,0.150674
81.3481,74.8509,40.9593,2.83195,0.338782,0.171964
81.3893,74.6331,41.0969,2.8803,0.327069,0.193947
81.4234,74.4051,41.2162,2.91698,0.312918,0.216247
81.4516,74.1682,41.3174,2.83717,0.297523,0.238385
81.4753,73.9234,41.4007,2.82109,0.281978,0.259709
81.4959,73.6717,41.4666,2.77911,0.267202,0.279327
81.5147,73.4142,41.5151,2.75345,0.253916,0.296094
81.533,73.152,41.5466,2.76729,0.242636,0.30869
81.5522,72.8861,41.5614,2.77282,0.233694,0.315827
81.5736,72.6176,41.5597,2.79725,0.22725,-0.574821
81.5978,72.3475,41.542,2.75558,0.199862,-0.709445
81.6224,72.0771,41.5095,2.76119,0.183851,-0.815574
81.6445,71.8078,41.4634,2.67581,0.181069,-0.836101
81.661,71.5406,41.4052,2.64873,0.191872,-0.757228
81.6687,71.277,41.336,2.73036,0.214851,-0.626769
81.6647,71.0181,41.2574,2.70259,0.247725,-0.496886
81.6459,70.7652,41.1705,2.64406,0.288108,-0.389952
81.6091,70.5196,41.0768,2.66799,0.333427,-0.30754
81.5514,70.2825,40.9776,2.78575,0.38036,-0.244383
81.4697,70.0553,40.8741,2.78459,0.424351,0.0870196
81.3621,69.8387,40.7676,3.06117,0.360805,0.113462
81.2313,69.6325,40.6582,3.23738,0.297354,0.153134
81.0813,69.4358,40.5458,3.34617,0.23782,0.218644
80.916,69.2477,40.4306,2.86725,0.183973,0.338455
80.7394,69.0676,40.3123,3.1313,0.136969,0.580949
80.5554,68.8947,40.1911,2.86841,0.0997619,1.07921
80.3679,68.7281,40.067,2.80477,0.0816107,1.65549
80.1809,68.5671,39.9398,2.8446,0.0944102,1.32755
79.9983,68.4109,39.8095,2.97914,0.133198,0.749635
79.824,68.2587,39.6762,3.09949,0.188482,0.38904
79.6611,68.1096,39.5403,2.79098,0.158202,0.655836
79.5083,67.9621,39.4035,2.76047,0.13225,1.08683
79.3636,67.8145,39.2682,2.74983,0.121529,1.45565
79.225,67.6654,39.1366,2.77785,0.135961,1.28341
79.0903,67.513,39.0109,2.74246,0.172538,0.854549
78.9574,67.3557,38.8936,2.70448,0.220943,0.538958
78.8243,67.192,38.7867,2.64377,0.272533,0.349659
78.689,67.0201,38.6926,2.59137,0.320593,0.235179
78.5492,66.8386,38.6136,2.64928,0.359445,0.162262
78.403,66.6457,38.5519,2.54164,0.384743,-0.16005
78.2489,66.4403,38.509,2.58573,0.311023,-0.190273
78.0887,66.2234,38.4838,2.52401,0.250597,-0.234345
77.9246,65.9964,38.4742,2.45898,0.201913,-0.299576
77.7589,65.7606,38.4784,2.43142,0.16373,-0.394215
77.5942,65.5174,38.4944,2.44028,0.135798,-0.518131
77.4326,65.2683,38.5202,2.40529,0.119172,-0.636268
77.2767,65.0147,38.5539,2.38798,0.115586,-0.669338
77.1286,64.7579,38.5935,2.37912,0.125615,-0.586961
76.9908,64.4994,38.6372,2.36266,0.14795,-0.458581
76.8656,64.2406,38.6829,2.27561,0.181053,0.635676
76.7549,63.9829,38.7294,2.23007,0.189198,0.681539
76.6584,63.7287,38.7789,2.21373,0.211028,0.655648
76.5753,63.4802,38.8338,2.23482,0.247652,0.582811
76.5049,63.2398,38.897,2.32987,0.299357,0.498052
76.4465,63.0097,38.9712,2.29044,0.365938,0.421085
76.3992,62.7923,39.0591,2.29902,0.446034,0.35675
76.3624,62.59,39.1634,2.23296,0.535307,0.302844
76.3352,62.405,39.2869,2.18825,0.624042,0.255271
76.3169,62.2398,39.4322,2.21334,0.69628,0.210649
76.3067,62.0965,39.6021,2.22096,0.733881,-0.219933
76.3042,61.977,39.7981,2.19224,0.607976,-0.255245
76.3103,61.8807,40.0164,2.26405,0.501386,-0.296468
76.3262,61.8063,40.2523,2.16636,0.419216,-0.344056
76.3532,61.7525,40.501,2.18407,0.361802,-0.392296
76.3923,61.7183,40.7574,2.2656,0.328468,-0.426988
76.4449,61.7024,41.0168,2.11753,0.318589,-0.431403
76.5121,61.7035,41.2744,2.04135,0.331266,-0.401381
76.5952,61.7205,41.5251,1.9584,0.365057,-0.350201
76.6953,61.7521,41.7643,1.86005,0.418185,-0.29508
76.8138,61.7971,41.9869,1.82581,0.488324,0.0699347
76.9511,61.8544,42.1891,1.77831,0.470204,0.0833658
77.1056,61.9233,42.3707,1.85581,0.442902,0.0981274
77.275,62.0031,42.5323,1.83252,0.41025,0.114544
77.4569,62.0931,42.6746,1.91018,0.375843,0.133092
77.6489,62.1926,42.7984,1.93598,0.34256,0.154268
77.8488,62.301,42.9043,2.04582,0.312497,0.178342
78.0542,62.4176,42.9931,2.04586,0.287138,0.204965
78.2628,62.5418,43.0654,2.06845,0.2676,0.232652
78.4722,62.6729,43.122,2.04041,0.254841,0.258406
78.6802,62.8102,43.1636,2.01534,0.249764,0.511619
78.8845,62.9533,43.1911,1.93609,0.2297,0.63376
79.0834,63.1021,43.2066,1.90585,0.216539,0.749439
79.2753,63.257,43.2125,1.85362,0.212753,0.822022
79.4587,63.4182,43.2112,1.90406,0.220071,0.821496
79.632,63.5859,43.2051,1.88856,0.238931,0.752626
79.7937,63.7605,43.1965,1.91933,0.268489,0.64843
79.942,63.942,43.1878,1.88134,0.307062,0.540357
80.0756,64.1309,43.1814,1.94978,0.352354,0.444162
80.1928,64.3272,43.1796,1.94267,0.401266,0.36345
80.2919,64.5314,43.1849,1.94997,0.449536,0.166274
80.3724,64.7433,43.1991,1.9494,0.384953,0.219314
80.4364,64.9624,43.2222,1.97077,0.317749,0.296463
80.4871,65.1879,43.2539,2.01187,0.25357,0.417368
80.5277,65.4188,43.2936,2.31829,0.19625,0.618587
80.5612,65.6543,43.3408,2.28886,0.149226,0.951555
80.5908,65.8936,43.3952,2.33156,0.117636,1.37387
80.6197,66.1358,43.4563,2.36071,0.108273,1.47222
80.6509,66.38,43.5235,2.22234,0.121666,1.0706
80.6876,66.6255,43.5965,2.33288,0.149225,0.658992
80.7329,66.8714,43.6748,2.00484,0.182884,-5.16E-01
80.789,67.1168,43.7581,2.03471,0.143228,-7.84E-01
80.8536,67.3614,43.8469,2.04062,0.112815,-1.19E+00
80.9236,67.6046,43.9415,2.0175,0.0969871,-1.55E+00
80.996,67.8461,44.0427,2.17238,0.100604,-1.41E+00
81.0675,68.0856,44.151,2.25973,0.121297,-9.64E-01
81.135,68.3224,44.267,2.03337,0.152474,-6.15E-01
81.1953,68.5564,44.3911,2.27816,0.189464,-4.05E-01
81.2454,68.7869,44.5241,2.25934,0.229601,-2.81E-01
81.282,69.0137,44.6664,2.0609,0.270776,-2.03E-01
81.302,69.2364,44.8186,2.03338,0.31057,-0.207194
81.303,69.4546,44.9808,2.1249,0.27969,-0.244274
81.2853,69.6687,45.1512,2.35354,0.25019,-0.288145
81.2499,69.8792,45.3278,2.05381,0.223514,-0.339508
81.1979,70.0867,45.5083,2.05098,0.200725,-0.397253
81.1304,70.2916,45.6904,2.06457,0.182673,-0.456581
81.0483,70.4945,45.8721,2.07815,0.170096,-0.507501
80.9527,70.6959,46.0511,2.04911,0.163588,-0.536513
80.8446,70.8962,46.2252,2.05627,0.163476,-0.533535
80.7252,71.0961,46.3922,2.09035,0.169683,-0.49938
80.5953,71.2959,46.55,2.0367,0.181744,1.07E-15
80.4561,71.4961,46.6968,2.04617,0.164665,-3.10E-17
80.3086,71.6968,46.8334,2.06729,0.146641,-1.50E-15
80.1535,71.8979,46.9608,2.09287,0.128104,-2.23E-15
79.9919,72.0993,47.0801,2.15451,0.109381,1.36E-15
79.8247,72.301,47.1926,2.21284,0.0906945,2.44E-15
79.6529,72.503,47.2994,2.20682,0.0721729,-1.86E-15
79.4773,72.7052,47.4016,2.25666,0.0538684,1.00E-14
79.2989,72.9076,47.5003,2.38787,0.0357747,3.75E-14
79.1187,73.11,47.5968,0,0.0178435,4.76E-14
78.94665,73.2242,47.6993,0,0,0
78.7746,73.3384,47.8018,2.35678,0.00890839,1.37E-12
78.6116,73.3643,47.9113,2.27638,0.0178067,-9.23E-14
78.4481,73.3903,48.0202,2.17295,0.0266842,-6.80E-15
78.2839,73.4165,48.1283,2.18283,0.0355283,-4.61E-14
78.1189,73.4429,48.2354,2.15102,0.0443243,7.70E-15
77.9528,73.4696,48.3411,2.12808,0.0530545,6.59E-15
77.7854,73.4966,48.4452,2.11567,0.0616975,-1.06E-14
77.6164,73.524,48.5474,2.10208,0.0702275,-2.20E-14
77.4458,73.5518,48.6475,2.05443,0.0786145,6.89E-15
77.2732,73.5802,48.7451,2.06798,0.0868233,1.28E+00
77.0986,73.6089,48.8403,2.0204,0.0564421,2.98601
76.9225,73.637,48.9338,2.02619,0.0483738,4.04259
76.7459,73.6635,49.0265,2.04569,0.0703342,1.92084
76.5693,73.6871,49.1196,2.00394,0.105277,0.869103
76.3935,73.7067,49.2139,2.00791,0.144665,0.469867
76.2194,73.7213,49.3104,2.05169,0.18626,0.290418
76.0476,73.7296,49.4102,2.04703,0.229119,0.19644
75.8789,73.7306,49.5141,2.02576,0.272342,0.141271
75.7141,73.7231,49.6233,2.0405,0.314682,0.105931
75.5539,73.7059,49.7387,2.05497,0.354403,5.24E-15
75.3988,73.6784,49.8609,2.07181,0.313852,-1.75E-16
75.2486,73.6413,49.9897,2.00048,0.273028,8.66E-17
75.1026,73.5956,50.1241,2.03241,0.233174,2.98E-15
74.9605,73.5423,50.2636,2.07056,0.194987,5.86E-16
74.8215,73.4826,50.4074,2.02807,0.158736,2.94E-15
74.6852,73.4175,50.5547,1.93764,0.12439,2.13E-15
74.5511,73.3481,50.705,1.93604,0.0917205,8.27E-15
74.4186,73.2756,50.8573,1.94304,0.0603816,8.81E-14
74.2872,73.2008,51.0112,0,0.0299582,-2.45E-13
73.9049,73.0064,51.2357,2.27045,0.00237082,5.29E-13
73.6538,72.8877,51.3057,2.218,0.00474564,1.69E-13
73.4029,72.7688,51.3757,2.17589,0.00712849,-8.81E-14
73.1525,72.6495,51.4457,2.05035,0.00952333,-3.29E-14
72.9027,72.5297,51.5157,2.03223,0.0119341,-4.47E-14
72.6537,72.4093,51.5858,2.01073,0.0143648,-1.87E-14
72.4056,72.2882,51.6559,2.07759,0.0168191,-1.63E-14
72.1585,72.1662,51.7261,2.06259,0.0193009,-2.00E-14
71.9126,72.0432,51.7963,2.07394,0.0218138,-1.38E-14
71.6682,71.9192,51.8666,2.1078,0.0243614,-1.50E+00
71.4251,71.7939,51.9368,2.12743,0.0243331,-1.53E+00
71.1835,71.6677,52.0061,2.18763,0.0299182,-1.03166
70.943,71.5404,52.0736,2.17452,0.0389497,-0.623487
70.7035,71.4125,52.1384,2.18661,0.0497648,-0.392303
70.4649,71.2839,52.1994,2.14094,0.0616025,-0.263541
70.227,71.1549,52.2557,2.10752,0.0741257,-0.187618
69.9897,71.0255,52.3065,2.03886,0.087158,-0.139921
69.7527,70.8961,52.3507,2.02131,0.100575,-0.108227
69.5159,70.7666,52.3874,2.0491,0.114253,-0.0861409
69.2791,70.6373,52.4157,2.0244,0.128047,0.150993
69.0423,70.5081,52.4349,2.08277,0.111676,2.01E-01
68.8052,70.3788,52.446,2.10333,0.0953057,2.75E-01
68.5678,70.2486,52.4502,2.09773,0.0795785,3.88E-01
68.3301,70.1172,52.4487,2.06399,0.0653515,5.61E-01
68.0918,69.984,52.4427,2.07773,0.0539155,7.96E-01
67.8531,69.8484,52.4335,2.00774,0.0471151,1.00E+00
67.6136,69.7099,52.4223,2.02937,0.0465497,9.76E-01
67.3735,69.5679,52.4103,2.05538,0.0518635,7.44E-01
67.1325,69.422,52.3988,2.09106,0.060984,5.06E-01
66.8906,69.2716,52.389,2.11803,0.0719399,-1.27E-01
66.6478,69.1162,52.3819,2.1528,0.0652118,-0.144394
66.4043,68.9561,52.3773,2.04252,0.0591094,-0.165244
66.1604,68.7914,52.3748,2.02311,0.0536278,-0.19008
65.9163,68.6223,52.3742,2.01886,0.0487815,-0.219048
65.6725,68.4492,52.3751,1.98198,0.0446067,-0.25156
65.4291,68.2723,52.377,1.98759,0.0411619,-0.285689
65.1866,68.0918,52.3797,1.98281,0.0385235,-0.317626
64.9451,67.9079,52.3827,2.01446,0.0367737,-0.341826
64.7049,67.7209,52.3857,1.96388,0.0359791,-0.352615
64.4664,67.5311,52.3883,1.96775,0.0361679,-0.346948
64.2298,67.3386,52.3902,1.94021,0.0325238,5.71E-15
63.995,67.1437,52.3915,1.95372,0.0288829,-7.75E-15
63.7617,66.9468,52.3921,1.96405,0.025248,-1.01E-14
63.5298,66.748,52.3923,1.99197,0.0216205,-1.49E-14
63.2991,66.5476,52.3919,1.99352,0.0180012,-1.14E-14
63.0694,66.3459,52.3912,2.06385,0.0143897,-4.72E-14
62.8404,66.1432,52.3902,2.07572,0.0107854,-1.17E-13
62.612,65.9396,52.389,2.10368,0.00718687,7.13E-14
62.384,65.7356,52.3876,2.08291,0.00359239,-1.66E-14
